ply
format ascii 1.0
element vertex 699
property float x
property float y
property float z
property uchar red
property uchar green
property uchar blue
end_header
-6.230211106512447 -3.8748088544786796 13.151654700698051 115 145 173
-6.230074427650959 -2.987777111756803 13.275788795711504 135 165 193
-6.250631611485322 -3.2600613257530835 13.238168219639729 155 183 212
-5.542543273601611 -1.49281559967642 13.758475389174333 153 164 192
-2.8052299993692325 -2.251288214767326 14.602061229336146 163 120 120
-1.0582894697701841 -2.3812418347666044 15.264078403787934 166 213 252
-1.8462117208698094 -5.94696836454905 14.422239798920744 103 111 122
-3.8571416648224117 -5.3598201129313505 13.833325821415873 147 180 211
-6.052283487116952 -5.278873556429062 13.032773569877115 157 182 213
-5.647071134945548 -7.393534773152723 12.840034754204096 252 254 249
0.21871975064687255 -7.11632103201109 15.087742905843283 141 151 163
-5.148626422586765 -6.4838983690364085 13.20665419161322 98 115 131
-5.94732068270414 -6.415013862352987 12.908408096046387 114 135 156
-5.867575254253172 -4.915439850760518 13.120676926252768 155 185 213
-0.8340627165620729 -5.0845526193252075 14.985213605180855 87 94 110
-4.934994121126708 -5.0276726430239185 13.469548744646751 159 189 217
-2.751374973614893 -2.383983168818768 14.660222903726385 55 116 99
-3.2298584871342015 -2.298496367426194 14.509170363077248 42 71 68
-0.9916828233772873 -6.456406935785709 14.697650148033135 76 72 79
-4.63101516317288 -5.2944093642580805 13.54812746038326 115 148 179
-6.000285658842935 -5.123188607465003 13.063780968883284 147 177 205
-0.7223799201427383 -3.1095236281166185 15.244071201000926 147 199 238
-6.408511565182316 -2.9337116057318635 13.221439704662476 93 123 151
-4.167033956214005 -2.207133774065209 14.196354136519638 77 63 74
-5.299016558794189 -4.957196346613592 13.353955236664481 160 190 218
-4.664370546028508 -4.988194715867683 13.581908082450353 161 191 219
-6.738077499439342 -5.000060404932768 12.81138211792568 118 149 170
-3.562116343925261 -4.798836709347257 14.048088398747584 154 188 215
-6.419426540349025 -4.2722623892996605 13.020033415146255 152 183 204
-3.57017367768445 -0.5824452231165053 14.585483701104739 55 43 31
-3.4022901130237857 -0.7813461573738831 14.64069898184482 46 42 43
-1.0361295332253766 -1.1564367923829457 15.428740866381895 144 155 179
-6.341091139331269 -5.012193218622077 12.942855763814988 122 156 183
-5.034051048462601 -4.996138941598032 13.447685047697645 106 136 164
-3.8055825269431285 1.1662355286254544 14.845070129100442 172 169 164
-6.584251222347638 -2.6504304233447993 13.188841647170861 88 121 156
-6.83923988127104 -3.5971659098647923 12.966787044558341 90 111 132
-2.2653086585939968 -2.2290970766602998 14.882143200695216 66 102 90
-2.345426180110339 -2.3674589441975553 14.812490109838471 125 91 122
-6.521078852510767 -4.3508528193227445 12.962569668354554 150 181 202
-4.744444157568427 -5.010905953123486 13.572219163934781 158 188 216
-0.08180885607593713 -1.3391408688819801 15.732128926209082 23 54 89
0.7578939940443801 -2.4280266233689085 15.937816213894155 43 39 38
-3.6508527424957204 -0.8570858277809231 14.553478468974593 47 43 44
-6.263879406273479 -3.5588873029340338 13.202346030465366 195 230 254
-4.197503153046627 -2.1615529581000823 14.191917170320002 122 77 81
-3.264490332126668 -2.328004597806654 14.423567558701683 37 97 93
-0.7533503762759434 -1.2041332140588623 15.574397545798423 134 159 188
-3.781829101064319 -5.1003073592235175 13.855343987892836 187 219 248
-1.0569651883377336 -1.2802798696605011 15.457359305042065 22 39 61
-3.7519062962747904 -1.5934207376965326 14.425459814880961 222 243 254
-6.57440632542133 -5.014481665511094 12.870770940281886 167 201 242
-0.44310781134424304 -2.4338742780065425 15.46387221240902 109 145 197
-0.7700544313622962 -5.787242006138762 14.910949124977043 73 88 106
-4.167716166407453 -6.5026971728268785 13.527834422508542 45 58 91
-6.064789050871013 -4.603027680777839 13.150097790812955 162 211 241
-4.640091389452483 -1.9007851741200275 14.072128296200647 35 38 55
-0.5166757933446282 -1.2917991214927549 15.621081058582238 62 74 95
-3.4923322521712006 -4.712444355066513 14.02457410226648 80 118 156
-6.427953531720304 -3.648473373886482 13.103304811890014 178 222 249
-0.5959575041142348 -0.222914322368248 15.743419582400225 72 61 41
-0.7826862588864358 -0.2608878687063204 15.641566802188336 54 43 25
-3.503840729877533 -0.7208180060817599 14.598008217436686 72 64 61
-4.701846856494967 -1.539440491617416 14.078485983238455 161 195 230
-5.846350517310877 -1.4816990313455025 13.663065168269044 166 199 234
0.7487000529009473 -2.269104682115494 15.916916819826344 80 91 110
-4.789884611326994 -1.9321877310368605 13.989639603526005 85 126 172
-7.984037413263611 -1.7497809740850532 12.837273238737545 9 28 66
-5.178042589665095 -5.022037924647892 13.391653994402846 154 198 226
-5.923819241236155 -6.386851272190234 12.954950209207631 132 148 176
-6.566173905963106 -2.07431163263861 13.29829689133933 93 138 197
-6.3275400911986734 -2.5421797951846257 13.293768305332124 137 200 251
0.08814913322657136 -2.3248849989510005 15.687096762960543 20 35 55
-6.501940063784484 -1.988961048083527 13.120813678989803 169 128 198
0.8061484761545465 -2.3799916354513306 15.969921417682219 23 32 53
-6.67902744190248 -4.50425538320322 12.909730095656714 149 216 254
-6.433665687417825 -4.555423961228513 13.012600523043524 166 213 255
-3.171813561094827 -5.145946618092929 14.101861385553658 126 165 198
-0.46757286849197577 -5.649316300857471 15.02315017364008 89 112 144
-6.280478932849283 -3.4860343217679834 13.199111634014093 106 152 178
-6.544651474068453 -3.5500370923836027 13.118372698697756 179 223 250
-6.560085050085388 -3.8993476486591634 12.994435599859997 169 213 240
-6.459360322736431 -4.052978517728227 13.00377314588577 176 220 249
0.6218232865854729 -1.414987448811253 16.021252596146034 62 72 90
-1.4566577911542575 -1.5748353342727015 15.264114228949616 21 24 41
-1.3520540290253102 -1.2666051657546968 15.312476006455348 117 149 184
-0.5994996226668492 -1.3491127385997959 15.593770986102612 78 86 103
-5.826724650521373 -5.3174005045839845 13.15367645623772 153 196 235
-5.83812355961694 -5.106429881120658 13.119990603901357 159 207 243
-5.957072217353144 -5.1761165486467 13.060562923907034 139 190 233
0.7931260286726836 -7.1508242102318995 15.288964854314434 35 43 54
-1.1099130713236758 -1.157395293520449 15.402857931815735 26 28 40
-1.2128095404608983 1.5521052919599048 12.966877750938753 111 108 103
-6.876699950641509 -0.8750564480634481 13.340812737543216 95 142 187
-6.565379823514978 -1.3633524439389617 13.434140650072713 27 48 75
-0.6298057683100721 -0.30097043989064853 15.745067217074237 156 149 130
-6.561469276502115 -2.540062803417333 13.226319839054426 138 205 255
-6.276769523139512 -2.56530056140053 13.354231113897429 142 205 254
-6.680126984722028 -2.4827644575526175 13.212479935750855 122 194 244
-6.2468468553650585 -3.098649306491527 13.264784082676105 173 224 255
-6.350654217328212 -3.0265016159760623 13.230550573990932 168 215 243
-2.164894469883458 -2.386259167141377 14.878976685891784 69 106 150
-6.0242881837198645 -4.459338799127669 13.14995518567147 115 164 200
-6.7776834134162325 -4.721112230934194 12.837748384642328 128 169 198
-3.227347106417543 -5.144965336977479 14.086242337761284 126 165 198
-1.4908976563663277 -5.343033128934976 14.68500025318014 95 128 164
-6.258910480561964 -3.686667162182145 13.182964207951299 176 226 255
-6.491304692843012 -3.4618805609960255 13.122922082373918 141 181 206
-6.545317312369741 -3.9025915480132385 13.097348545623195 117 161 188
-4.878584755773631 -1.557723129751787 14.007801069452851 171 214 246
-7.418758470124954 -1.7665550161788666 13.01489846398857 38 53 82
-1.5366039275479122 -2.2894984193687953 15.142847178431554 39 42 59
-6.465353073928725 -1.9251278796737197 13.329208840372903 100 159 215
-4.124625168273091 -2.060766854448408 14.147727423299424 36 39 54
0.3312871890098472 -2.3431139803122094 15.773260755924792 82 91 112
0.48114258509988095 -2.2299023184970035 15.87073488627604 80 92 111
-1.9943155695062422 2.0331198718287586 12.145160564337663 118 114 115
-0.5350006726321497 -5.481299001717491 15.037833593832705 87 114 149
-6.070975025041644 -4.612560674608464 13.105046796379678 111 159 190
-3.3202093246888906 -4.977642241495835 14.08511262469532 111 150 183
-3.96926258650618 -5.317988239543132 13.812294633429858 138 177 210
-5.336863778171066 -5.082752363070215 13.296324032177843 163 206 238
-5.461815993991412 -5.018780892750417 13.293395919932122 158 206 242
-4.691726761053064 -5.023464860316397 13.566780401494249 104 147 179
-6.309604579422623 -4.880500551289431 12.997288084435846 101 152 195
-6.37280342911475 -3.267589639191197 13.225623705722649 120 167 197
-6.692398168872682 -2.8467257026460473 13.156810793085802 150 213 246
-6.1553380327667435 -2.7236196315069967 13.395993136645012 150 212 253
-6.558759521784958 -2.368193966874937 13.227954104217432 60 134 175
-6.48519385242542 -4.0967309039688375 13.038827642784762 107 150 182
-6.682616514795271 -3.9709581785827845 12.982239907043365 132 172 197
-6.483637795059683 -3.7872079184697047 13.091868869004868 100 159 198
-5.026092183070073 -2.2932417685883943 13.860018319464157 31 46 93
-6.75057565238383 -5.107216364302296 12.787007350445927 138 199 244
-6.68539732330086 -4.933501584053206 12.820684605942603 98 152 199
-1.6196512103410408 -6.634166809346789 14.480942445270914 90 103 122
-6.3629083439106475 -1.3863723385702338 13.473883921405758 177 213 245
-0.05352228304402851 -1.7376887761485627 15.78533572174415 22 26 52
-0.17792007356319206 0.8456882164959686 14.165552776203576 110 107 102
-0.7756371428591958 -2.269819876380858 15.403092203304137 30 52 92
-4.474743698879431 -2.186123813932752 14.06974050279344 59 40 60
-6.786971853026041 -2.026457475608498 13.212927994675379 127 182 218
-6.995584416488499 -1.7650647418687906 13.178076318570922 126 142 168
-6.290038812314703 -1.876435891419226 13.443468411902348 56 109 161
-0.027625969629966107 -2.260935671660104 15.687114027839172 17 33 55
-6.587408864880931 -3.991384356689683 13.01383096781756 102 147 182
0.3757292453540333 -2.3035986225910112 15.795270938682002 22 34 59
-3.608310749495458 -0.6012110045789539 14.570356133292972 83 79 80
-3.7794548140970043 -5.0542554195031135 13.926419854284413 139 178 211
-6.034422765486256 -4.514103146232699 13.158104188430384 122 171 201
-5.701598010097469 -5.032467870339482 13.177905696916552 110 158 194
-4.593183331628691 -5.01961536095683 13.587414271667978 105 144 177
-4.556582073895318 1.1189367397249375 12.654523073323885 161 157 158
-3.5159176685670737 -1.0782194245639056 14.588079049248233 102 136 170
-6.788584321548951 -2.087920202200044 13.219608943646703 107 184 227
-6.242775810666412 -2.497617107163762 13.331783171785203 136 200 248
-6.841441075554619 -5.3276445428481125 12.750356899842965 159 188 222
-6.601508712757919 -6.044820263810345 12.683291495968575 93 96 115
-5.798076425071839 -5.176628141822162 13.129804960623204 153 201 237
-6.638350549058859 -4.9675912024399205 12.845122779301992 143 198 240
-5.637818956991275 -5.149507420525042 13.19041490837807 98 146 182
-0.6883380776005674 -0.2963472110170975 15.66248456648555 192 172 151
-6.397222551313852 -4.870061989575121 12.95092354499606 106 158 195
-3.016066179004282 -5.136268542874209 14.185657031750285 75 113 152
-6.6681176462013765 -4.465357691396422 12.910363958769695 165 209 236
-5.692633897060508 -5.194674817003379 13.203401860451907 152 199 235
-3.306839937199197 -2.194362875138296 14.493840738151242 28 35 51
-6.3751270908746624 -6.283013517099622 12.761960801628645 62 61 69
-6.833560971486486 -1.944491974131872 13.21117118505061 52 46 58
-6.6099273536122745 -2.998009696844043 13.145931901230957 171 218 248
-6.140437679361105 -2.991840784406999 13.3284524292171 169 219 242
-6.195003979219897 -2.649213596835523 13.342369161605363 100 162 221
-1.5903345130946378 -1.595760581477567 15.207857171014403 16 25 42
-4.833747966942385 -1.4562012416123897 14.044981622807054 33 37 55
-2.9012119665046487 -2.2480584053132135 14.650215789155927 94 57 75
-5.164986218223257 1.4598069927808712 14.294686670280845 23 19 20
-7.689887411422755 -1.8601475382319441 12.938011623997296 45 40 46
-2.27974991722394 1.6398040782355645 12.55458504916898 41 38 33
-6.114138849283157 1.533532701466001 13.970901923904982 28 24 25
-3.296276266992389 1.12485689085958 13.011608979548273 23 19 20
-4.873419499061183 1.962230227130462 11.243779842891604 18 14 15
-1.7098555580666173 -5.473061209524852 14.597602600255101 85 123 162
0.42270242180274353 1.892977052676982 16.458206487435877 20 17 12
-4.664367533180635 -1.0062763193731783 14.087217920475304 45 67 100
-0.6115290430625914 -1.1939414060140923 15.62192431013074 199 207 230
-0.821040812794631 -5.457295658623554 14.93165771206113 59 92 139
-7.6931867152645 -5.6273336127978535 12.389183746965967 222 226 238
0.9572760110938627 -1.361353154167747 16.143130214501983 232 228 229
-0.9684491335605641 -2.1937580515990684 15.308210917811364 107 137 175
0.032225047286038144 -2.187389264111168 15.620779531994454 19 36 60
-1.0306836395928196 -0.27433698596063716 15.597021819400371 182 167 145
-6.4850137505932235 -5.221521004384685 12.884823060128346 186 215 247
-3.715734078905226 -0.9321309448355278 14.531865909664639 81 79 91
-6.514263548487649 -0.7906270815780051 13.507972523660792 32 36 53
-6.678633394359026 -5.111781745685001 12.822998400945435 155 178 217
-6.147833649564872 -5.012398002104326 13.035508440659996 95 132 176
-6.408946537999747 -3.05744275905888 13.216727277321642 66 99 140
-7.897944539640273 -0.8565823961165817 12.985414044249639 3 10 38
-8.104488105047631 -1.3502452953512634 12.837865942413215 247 252 254
-8.185148863874632 -1.3453699548394906 12.802697306523056 228 235 252
-7.471279241284566 -0.7490611669334098 13.153961887038701 114 119 133
-8.26175725450148 -0.7129711114211086 12.924823204931046 51 51 79
-5.95839962153676 -1.4272181723164046 13.616993998573014 239 248 253
-0.5559881737293901 -0.3071148274027258 15.769376224829145 182 167 141
-6.784175848423194 -1.4178037530704335 13.322793809492527 193 213 238
-1.3500679128757942 -0.2609788060295911 15.545060267617568 192 170 153
-7.646703678997564 -1.388243161409565 12.996728678899139 225 231 248
-1.369903937093985 -0.24525729700945817 15.34838339804013 182 168 161
-6.081204144662039 -1.4181811817331222 13.575074290866358 219 233 248
-3.4884449909740827 -0.5218400572233963 14.635377706329308 20 9 2
-3.4703309455587776 -0.4906281135037984 14.645488466424817 98 89 80
0.7416149419393332 -0.40436567947828794 16.24522034885928 55 51 52
-8.162135356529454 -1.0715391034388555 12.863946298923056 227 229 240
-0.8336579135108032 -1.280434375725594 15.523151235492852 25 41 64
-7.629516939511266 -1.349179816116587 13.015921053478634 1 7 34
-0.9934155849883578 -1.2997143845458763 15.448754827348413 153 171 207
-7.652742286131059 -1.2873083209610516 13.013298033444984 242 237 245
-8.144724741206145 -1.2881401892776088 12.836406235141785 234 243 249
-7.77240615526641 -1.3106284174519411 12.966986255846455 229 242 254
-0.9311953437179569 -1.1430082327631808 15.542130158006898 181 204 237
-3.000239345828266 -1.0869427384706711 14.77927590066599 220 231 249
-7.806217358787616 -1.3454764087516244 12.956760100129973 10 27 50
-6.217401749752909 -1.4015461710786374 13.522508155558034 16 34 58
-7.745417714579611 -0.9001927455106361 13.029829045488665 215 218 237
-7.657578206425975 -0.900001758837815 13.072734383608969 10 14 26
-6.889671246339177 -1.3920117103357315 13.277026599518178 5 13 32
-1.2760941213366306 -1.1066725200728484 15.417498225558317 32 45 64
-1.3622494481110317 -1.2417257909046011 15.350644599143564 216 241 255
-6.7807063869514685 -1.374059049214461 13.318596377564786 222 237 253
-1.4392380492819057 -1.1699645456279169 15.324272153058665 7 22 50
-1.0108530163287277 -1.1797732809701635 15.480847523209663 228 235 250
-1.5979208108064993 -1.1641808790168306 15.26973764231717 201 227 255
1.0813308054577597 -2.375638931668764 16.042169483228875 21 39 63
0.48916195696011466 -2.355151498539231 15.827855513652398 228 244 254
1.1789464908002347 -2.386734816604573 16.087888993156977 216 232 250
1.0582070761186653 -2.364709307908903 16.0367149560249 224 236 245
-2.0398394272574283 -2.2893969894676247 14.922704787479873 69 41 52
-3.3748800067624876 -2.3322643382796864 14.437154856049114 51 126 113
-3.519200656928339 -2.2850621822987183 14.411180999268206 3 54 30
-5.809803448906325 -2.0949066216265977 13.607696711056278 45 41 74
-0.7972420465706472 -2.234072480051709 15.456694717424112 51 90 135
-6.414955498851673 -2.066815769191482 13.346176829418567 62 92 142
-4.541109093307002 -2.122205444193781 14.085532532122219 52 51 46
1.091738755033514 -2.2695197621745464 16.069121619634124 199 217 241
-3.8150121930981946 -2.1444906408604902 14.32380721435612 113 133 168
0.35096755933686086 -2.237512322206316 15.794551115626668 4 9 30
-6.597657114657951 -2.0423054292579956 13.29926285036924 158 191 232
-3.3594599302017016 -2.228055694407763 14.480054106401113 178 118 126
1.187336996594153 -2.3078216140612042 16.087092585887476 207 216 234
1.0595143344176685 -2.299888896703025 16.040942842504094 218 231 249
-6.256071227968688 -3.793794018170235 13.155929117965197 197 231 255
-6.543129680058472 -3.7544761956631536 13.067045112419079 186 215 244
-6.282492891169385 -3.69478513438577 13.166671342510327 76 108 132
-6.59363767763414 -3.6697402486883113 13.0579435276049 71 99 123
-6.199189827889653 -3.5109447714482633 13.22035099728305 130 168 207
-6.492353602155326 -3.3730067761041385 13.115866601113952 204 229 254
-6.199679412911911 -3.3928442444459894 13.282876486201468 128 166 205
-6.248678947825182 -3.1604177178593664 13.259347775664224 201 231 254
-6.679276567360248 -4.40467747749054 12.879027482614749 58 92 145
-6.25977806274397 -4.246632935775499 13.088166964144063 195 228 255
-6.289479585984044 -4.220462283342828 13.08584373612316 94 115 140
-6.67165584614647 -4.052829301498443 12.968496216300197 184 215 243
-2.8044701837127484 -2.3687372793260106 14.611832931159354 23 49 64
-6.529200839372099 -3.007828654093322 13.123146510397953 182 216 244
-3.2238478909320083 -1.6079170176244513 14.626712012565726 227 243 252
-4.6415363817034 -1.545198576341782 14.094927601732135 18 35 53
-5.682027056180875 -1.5250977480170584 13.759020161903756 232 242 251
-4.947449854205995 -1.5503432608277035 13.958011216042971 215 244 254
-4.00380055916591 -1.5583926954944631 14.342713818896142 232 248 255
-3.960519618471772 -1.5584254876444592 14.353630448702988 236 250 253
-3.960103374333306 -1.6192044331311453 14.3427839551219 234 251 254
-2.4033435021419365 -1.6649951548061999 14.909730369782068 231 247 255
0.06588999405731455 -1.7252241261174865 15.777879550787468 229 237 254
-3.5822746288198397 -1.626338400819778 14.464197433692904 1 8 36
-4.758331717359747 -1.584002572075525 14.046271225192168 6 12 33
-3.8223084340285496 -1.6048125665060746 14.397603488769004 1 13 41
-0.7636723563999537 -1.6624463125877462 15.484271830311885 20 33 53
-3.9399787899481593 -1.599262939727379 14.355838057559072 0 7 36
-2.6330380620881506 -1.648004715371012 14.83331990726742 231 249 255
-6.7391530924493965 -1.4379602521817632 13.319637240149982 225 238 251
-5.980821737021486 -1.4610915489331924 13.600252883207869 5 11 28
-5.253125976910861 -1.4745285810877247 13.878189921282715 232 245 252
-6.3649311995992575 -1.4234010182919952 13.466792060605572 228 246 252
-6.672885322475415 -1.417619595806696 13.351426474438338 1 15 42
-7.265217189637103 -1.4002027212729895 13.148737666446028 216 232 252
-6.842720062062867 -1.4108950689205442 13.286300191485328 6 22 47
-4.573811397763818 -1.5198102265999736 14.126727832711456 241 249 254
-5.936519056246032 -1.4658424064659232 13.620619990119181 7 15 32
-4.683693521914923 -2.0343884842432356 13.966627728793862 141 168 211
-6.5911212975716476 -1.8483588633137293 13.311807064760316 64 96 152
-6.662262332383677 -1.8542008791249853 13.335397091874702 62 95 146
-6.89107342103827 -2.0246419719331086 13.196678016649077 83 61 61
-7.042203759326263 -2.018982987529538 13.206442673008233 81 49 57
-4.688431655326284 -2.0718858279714225 13.962789967122747 153 185 233
-6.3367064339499555 -2.03267465058756 13.40199163312031 139 118 161
0.3322704450417713 -2.2176069401267746 15.795855970451335 217 224 240
-2.515776741951476 -1.6991063650076645 14.871838750330749 2 7 29
-4.121928871797624 -1.64529824703687 14.283173334234668 222 235 248
-3.759052960828474 -1.648196496560764 14.408999532926106 1 12 38
-3.2088881386994696 -1.659459657341236 14.621863492603849 216 241 251
-3.740811353649373 -1.6384294797277945 14.43962304557009 218 243 253
-3.7044393909837057 -1.633225409599232 14.41502129467055 232 254 255
-3.149589176906039 -1.6535880857060734 14.643785307667562 2 12 39
-4.661909624717119 -1.8362524309573622 14.035954089431335 46 73 101
-5.903877565198226 -1.7669011444471228 13.602944217048 58 74 116
-7.953277297220378 -1.6848961347082405 12.847662491234361 222 229 248
-5.322928511329896 -5.203806082865496 13.27376324556502 186 215 247
-6.429400452368807 -5.13766738740667 12.896273937954353 173 205 246
-1.1340221930688257 -5.18824510704369 14.827722481132712 71 95 140
-6.306238047478852 -5.037629206264835 12.997578894078568 92 130 169
-6.741969899479309 -5.323659646268601 12.773641011117794 70 93 137
-6.605813861921398 -5.281866479959261 12.77850896342533 45 71 98
-6.28972234897123 -5.324297497543055 12.957400264004914 190 220 246
-6.539411057661174 -5.298397547326123 12.857860319645459 183 208 238
-5.732382257739961 -5.269641214550377 12.997812501796117 69 99 127
-6.25734899857737 -5.272545039775478 12.970477016300565 183 213 245
-1.2335397883013026 -5.4255121778648245 14.790127673715368 165 203 242
-1.1351323316028394 -5.416249900756275 14.81379628556537 69 110 151
-1.4081398504237077 -5.390923853449602 14.639716634460726 61 89 126
-6.465007225508868 -5.278232226072842 12.881982960623315 94 123 155
-6.033340896981122 -5.022333925151447 13.08309029173562 93 126 161
-3.617048499395162 -0.5264416672497024 14.563338690904756 26 22 23
-3.4769606875589103 -0.549005584776832 14.625332671165463 33 19 6
0.7047326522445967 -2.341127718573932 15.909006981918886 229 234 243
-2.1751404295871444 -2.282582212257669 14.90505795773654 68 41 57
-5.088593484002658 -5.034558483542362 13.450879639125036 191 221 249
-6.745769919589942 -4.93343848054039 12.807404101990807 80 113 148
-5.395020848069473 -4.984904995755559 13.308780062102034 193 221 247
-1.1930980110163505 -5.091437043844592 14.840492482833561 47 69 112
-6.259829024593578 -4.8828019792912745 13.009035330903721 109 141 179
-0.4111006276787419 -6.807077596731087 14.858570430090321 53 60 76
-0.8866356886984882 -6.738102244390944 14.715880961063496 68 55 49
-2.549212986408482 -6.6427423233278144 14.085101963119218 53 52 57
-2.0531686624708425 -6.595017786935658 14.306243742633882 208 218 228
-5.1111773161511245 -6.4367287358204255 13.214268859500796 44 53 70
-7.214303717554781 -6.3429797415636395 12.507056638682414 145 128 124
0.6627990847345286 -7.0609444503347385 15.222086801537174 40 47 72
-3.3579122699260413 -6.873769794624587 13.92172501973104 60 65 72
1.0707460467005918 -6.879283597714158 15.441662694214804 125 122 143
-5.782544300049545 -5.697787984521398 13.138918511079876 64 71 87
-7.8804762556782695 -5.565295671561465 12.351119456978534 221 221 232
-7.66302221635856 -6.268315048761315 12.319908270201783 216 187 184
0.5620104531933994 -6.183897709199661 15.326765342413324 188 192 204
0.1516558750907102 -6.137027648600598 15.153878371559223 45 52 67
-5.627462760426991 -5.7311839138391685 13.137070000003003 65 72 88
-7.893534704423074 -5.621493251175761 12.323571965535955 97 98 99
-6.555598480847181 -3.2496824174263 13.132984625937247 87 113 136
-6.556178949840548 -4.52791453400215 12.89220914248784 199 225 248
-0.8073417834887946 -5.127417403121326 14.976230507741384 105 121 149
-4.563215486398026 -5.052189498490443 13.606762303276847 181 210 244
-3.9716474660100056 -5.116192855416916 13.952430738017835 196 226 254
-0.773602701309726 -5.457931804566666 14.949343776417424 164 197 240
1.3400560396236048 -5.555040441057696 15.689421580461943 43 50 63
-1.1477889653304911 -5.257868288466278 14.826551982144863 60 85 142
-6.036269542130807 -5.0931111032303935 13.064756105511318 111 144 179
-1.165916314695512 -5.213685264887533 14.839389675165455 122 149 196
-5.506756572523717 -4.961283811895581 13.251795362570054 114 143 176
-5.784911022492857 -4.9479706244475326 13.171685886456714 197 226 255
1.392522544829388 -5.118615266506933 15.84499421226467 53 51 68
-7.349470984650251 -1.802607682267954 13.057194102232145 42 42 52
-0.5132483902411329 -5.888718518391832 15.07687733395483 44 60 80
-0.22693868145416496 -2.2452279429357276 15.589748281627816 192 224 245
-0.46572814541672036 -5.800118378652442 14.951727770577277 181 205 233
-3.070202133237812 -2.309642940028035 14.555200661523811 13 61 61
0.5856591875062953 -7.073911831695186 15.230307180112025 54 62 64
1.281726078421155 -6.869261016051397 15.532004818101274 118 116 127
-7.157775696939084 -6.301603493334492 12.482807208067614 104 92 92
-5.5261444799284485 -5.472690294513041 13.218051485992053 194 218 247
-4.635275437222167 -6.4715537768552505 13.37917879218812 139 138 143
-7.676018848539434 -6.344109007759457 12.342047618919288 103 101 96
-6.369439586924921 -6.402563217564371 12.7487959990645 90 79 83
-6.111297184255178 -1.7039702357456157 13.509263360917096 84 90 115
-3.231209828919404 -1.6395812845775135 14.613076230644028 0 16 37
-6.805320356372232 -1.8089275055569698 13.279501784036857 134 149 180
-6.579557549684248 -1.8108076045167318 13.25557335563856 118 145 193
1.5500828771989237 -2.003231172556932 16.20778436059531 60 56 57
-7.454958742366825 -1.3604418157094442 13.075013252325949 16 32 53
1.4575057964458227 -1.361474187093053 16.326917210997614 165 161 162
-5.719625598862012 -1.4738143560249914 13.696824419675417 4 20 48
-7.979692680475209 -1.358681480529148 12.885248325152787 208 220 236
-6.702270507200698 -1.4350764134331693 13.344697293034875 223 241 252
-6.442128264024208 -1.4381718439547184 13.443006115622513 208 219 237
-6.25722387615811 -1.4364547369711929 13.503754589308747 0 9 34
-6.4423737371451395 -2.172185812293857 13.372456987854862 65 95 145
-2.5309205314450143 -2.2521702612642334 14.7657606374966 72 27 68
1.2872932745491867 -2.5461114145048653 16.090827820822895 109 109 125
-3.0611386562293803 -2.3194173572941956 14.607622157486622 18 66 66
-6.405097779002647 -2.2512766538871243 13.34440462066113 143 184 230
-5.774185776367332 -2.230723133502025 13.557899965825394 34 54 94
-6.919017675114986 -1.9800176373513236 13.271428883488957 92 47 60
-3.0031354575156763 -1.977864494600836 14.646188704499101 70 73 90
-6.66995046162549 -3.1257385303661827 13.103150469098676 48 74 97
-4.5699943951392585 -2.170212774958635 14.053018676377901 61 54 62
-4.075146843792822 -2.16950618780866 14.142936888229254 199 122 132
-2.1997042637069875 -2.240102507784185 14.89471441271988 83 127 128
-1.0366868907935425 -1.200508215687515 15.466843701248147 39 46 72
-6.289775999324735 -4.327897482248371 13.069981789240803 90 115 145
-6.1328472318738045 -4.4796529718885685 13.17746365289752 136 166 194
-3.5196676600791923 -0.5880980642408208 14.606109361619508 29 22 14
-3.4090600195463674 -0.5186794156547845 14.655092397673624 96 89 76
-0.7689519448233914 -0.2875271969356934 15.670808472866245 181 165 150
-1.165448363152713 -0.2544880581215263 15.530888338559912 179 162 142
-1.6423377386622824 -1.1711798334314376 15.238004502795603 211 233 254
-6.5527692111814995 -0.763730062841245 13.496381202146708 174 200 235
-3.551954016358522 -0.6254495233828831 14.5742629790947 30 23 15
-7.879992070904298 -0.7004553971680634 13.00688700353452 101 95 107
-3.4766043511252542 -0.7662229094282852 14.58430557526601 90 81 76
-3.4987899350189746 -0.6728726418597858 14.604087529597713 39 32 24
-0.9036064403406071 -0.10472162465533005 15.648456789684989 176 154 131
-0.6678967068923178 -0.261629763879737 15.698498709919559 17 4 2
-0.8827138368078712 -0.2570097418598958 15.65401404444848 41 16 0
-0.6732924340074973 -0.12141663439149739 15.763690458269725 191 168 146
-0.4851426273065045 -0.23961629280400568 15.839063658099239 37 22 1
-0.769257517225381 -0.20986655925322925 15.670408042011811 44 28 14
-6.502174355711637 -1.679538829716295 13.369575502649964 87 92 120
-4.231769888929368 -1.6262119436579507 14.240945184285527 34 41 61
-2.265763194101156 -2.329392560541183 14.83385983820177 127 77 99
-7.524012558825808 -1.401516468557902 13.03940646476706 189 201 221
0.014229337290512678 -1.3958952757431897 15.763459034148987 40 43 61
-8.192856903603747 -1.0981243400203449 12.846063811643452 40 52 70
-7.718415252043037 -0.8750175863953625 13.050719599488573 69 74 95
-8.218813097854378 -0.8531036325303687 12.882319030355251 50 48 70
-3.3828401500528273 -0.7169912996395494 14.650225745978496 100 91 87
-2.473575154076461 -2.319492459939454 14.790188090337278 114 67 96
0.7948884950976429 -2.3149060485290103 15.947955105570017 32 39 60
1.1770860444616942 -2.282677029437486 16.099128877465745 209 225 245
-6.624222846327782 -1.9918409424094798 13.320230533214245 132 163 191
-7.3694797569803425 -1.76802540721477 13.062011850087035 45 49 61
-6.0342077152995675 -1.7454491814681723 13.524300514044207 63 78 118
-6.384196540289636 -1.7445216631805347 13.541118881590904 51 70 103
-3.5814258959313454 -0.5381654537272874 14.572836136398216 98 89 81
-1.3035001293443167 -0.24866747157303035 15.366696415654088 171 146 125
-6.461472615360853 1.3063189963124884 13.853982913489142 131 123 120
-6.014285898541181 -6.075206721703914 12.916819738350021 81 85 93
-5.429441115459372 -5.442271815857381 13.23167143471721 126 156 184
-5.805615141432307 -5.349881152284032 13.111005435555215 190 220 248
-6.521758853018675 -5.199590434847125 12.902187560879296 85 117 158
-5.586146594671321 -5.150092158277177 13.204768253888716 113 142 174
-6.214332720678099 -5.059856368858336 13.012793476451499 164 201 245
-0.7771618562456207 -6.743872498540517 14.748078517477401 133 90 93
-6.630978111191234 -3.6673085378552006 13.043770259066187 201 227 250
-7.780359630878667 -1.3826802804343894 12.956533701845219 203 216 235
-6.780345418286303 -6.329910602410981 12.6156646561495 132 130 136
-6.3133060218514485 -6.379450603392259 12.800942232544475 86 82 83
-0.8539093008692873 -6.740113002123754 14.723938516414147 128 98 96
-6.7257437921318575 -3.850107831006529 13.07825615466659 194 220 243
-6.6750474267747215 -3.550917350344921 13.045042857932904 159 179 204
-6.614790916491998 -2.9355705836184094 13.150801783418341 164 196 234
-6.358799006866489 -2.843258914657577 13.38862198133697 143 181 220
-6.463861700977193 -2.7828118535686266 13.152935904064801 119 157 196
-2.2555861909641526 -2.490366213676768 14.79319254659566 156 196 242
-5.315092861937151 -5.056755451733854 13.3204233167066 122 150 187
-3.4948672403843455 -5.114041278444787 14.045010506411485 189 219 247
-3.1502401464021714 -2.3496459532685816 14.57040953183914 65 141 128
-6.114172186600245 -4.7724858777716355 13.075505383386792 69 99 127
-6.4897049392439925 -4.2088856421073215 13.02888169278649 113 141 178
-6.4771179318820655 -2.9391414708446177 13.192437687180808 132 164 201
-8.156265560764519 -1.1427329602509961 12.849136862690708 191 201 218
-5.813557633282448 -5.030943809554646 13.149362841618808 128 157 189
-3.7392830968387782 -5.091016309176816 13.918062003881518 94 124 152
-8.012820667562819 -0.7120681185857528 12.969447929620157 69 63 75
-7.539860381506239 -0.7293754644910952 13.124267950390506 111 115 125
-3.4680337890954833 -1.6515339709172674 14.525728812889636 142 166 184
-4.288946833210936 -1.5760568076175794 14.224634504771277 42 42 70
-4.835991795634522 -1.5359583122921474 14.02844096317224 42 50 71
-6.398983885414628 -1.4225382537804943 13.446887599795637 55 71 94
-7.5670146282053965 -1.3589287224478621 13.037111568733694 70 68 80
-7.897199619710169 -1.3343307205011103 12.921866994215252 54 58 77
-1.4790249546921987 -1.2171587048736665 15.314827314169353 204 224 248
-6.04064759922431 -1.447494266308897 13.57948759138895 47 61 86
-7.6849176438104045 -6.215141968796469 12.34512819479206 103 103 103
-6.754502638491551 -5.042084385294823 12.8068331466461 169 202 237
-5.40885845154988 -5.040680341784615 13.296207198869736 183 212 244
-5.497125778649584 -5.003622788614675 13.25876887606872 182 211 243
-0.8177831862123578 -6.780609152422009 14.73968100220003 59 50 55
-2.937203285920666 -6.584132172755561 13.992695827346974 54 69 88
0.8107775032844791 -6.49345363556123 15.38638557351139 76 76 76
-7.638162245374798 -5.633918531462177 12.419531759379634 96 101 113
-3.0174790052767237 -2.349034711940258 14.564209687575998 72 145 133
-2.5661409630121446 -2.3255489689889375 14.760644857196288 101 62 91
-2.5074008409319744 -2.32017904710852 14.735771089373218 116 77 106
-0.3059044911903377 -2.2864046602867982 15.561026017082952 166 198 238
0.09598676389817484 -2.293648700098944 15.703516848410562 147 182 220
-0.3019858368254067 -2.192204360675159 15.576774741139957 175 209 241
-6.663989280881169 -2.9219258313773544 13.141635138014287 159 193 230
-6.337297297057953 -4.214951761561204 13.070690801083984 186 216 244
-6.532884063942209 -3.9985276509048706 13.039465776982519 148 178 206
-6.6840359252404395 -3.175068849213877 13.089132657329857 203 226 247
-6.541712259879087 -3.7282477446876254 13.07646554241645 205 236 254
-6.537011746828907 -4.135418511181553 12.96372355291194 190 220 244
-6.688254764302888 -3.9154439486255797 12.964165578283323 201 227 245
-6.627085266039824 -4.355440247492529 12.938892417192758 176 211 243
-6.559641163901441 -4.454135002301699 12.925176323959137 203 222 244
-6.593133981548753 -2.1030756820610748 13.280470684881776 139 176 223
-6.608102108712165 -2.3308237325305976 13.280068705425903 137 180 231
-7.485787087231479 -5.573563321131768 12.443062950286645 84 93 108
-5.511069931963705 -6.355773700994239 13.092669815028136 78 79 73
-6.305473130474016 -1.9020536780334025 13.386668495873243 123 162 205
-6.1266435449373295 -5.062625412289933 13.069823879513574 168 201 236
-4.197925855009849 -7.506899749751408 13.325105735809428 233 223 170
-2.945460115828029 -5.141093349226455 14.192450735825357 205 235 255
-6.268394138646033 -5.075416703047467 12.992558239367563 163 201 240
-1.0728507169268737 -1.617775871068618 15.40007419467396 104 121 141
-2.583613977042438 -1.6826399743919211 14.842808430636959 32 40 61
0.21254897898864633 -1.7584246551037985 15.816967900727033 30 37 50
-7.6857529788238335 -1.7480309932767502 12.930410148725723 170 184 204
-3.584319348983927 -0.6930831111914842 14.564728997282883 94 84 76
-7.588784709258821 -0.939854455376241 13.090382801828039 57 57 67
-6.935265593702186 -0.8503003620058465 13.330674934891125 93 112 142
-0.1826587402427875 -1.3466044071382033 15.749520749181407 202 220 244
-2.5899798306772004 -1.1389754850212845 14.917544763879585 12 23 50
-7.780585848261389 -0.8755762607631595 13.039773116434324 103 108 129
-6.39924120447665 -4.78550322086357 12.906247889573528 188 221 245
-6.290119217908567 -4.7947511237464395 12.954106706145632 177 212 231
-6.608698009075877 -3.5103054413328207 13.055449453302185 199 219 244
-6.60952362772817 -3.403489117570125 13.103278215676644 203 224 247
-0.7916620136631756 -5.4815869132729125 14.919080248462503 175 205 241
-0.9958647443422315 -5.48470922035603 14.887089549373488 175 209 237
-7.669947447247693 -6.273737545726051 12.328643860116529 215 186 183
-7.780133979645069 -5.644115674893915 12.383136501417761 98 100 112
-0.937123944985226 -5.498327427384229 14.9203748125039 181 214 246
1.0491564769108936 -6.83530786061686 15.4142181368891 126 135 170
-7.084894020889493 -1.738285593426858 13.185690879697537 60 55 61
-2.905117685350669 -1.667566554975778 14.733139809746504 189 213 233
-0.02532129334594968 -1.6985212323485845 15.753435286346132 198 218 240
-8.039439273621294 -1.725637905974934 12.815858111045614 157 173 196
-6.474667764911687 -2.329332143780256 13.352842665898837 139 180 226
1.1135024741986987 -2.4639798372754287 16.064784461870968 42 37 43
-5.130365276651715 -1.8657469937469588 13.876240911350804 54 52 73
-6.295659598415538 -2.0921560406904134 13.390220287011244 130 166 214
1.118824520881912 -2.3367115328078967 16.066922350434236 38 32 37
-7.853231587828873 -0.7861546843106705 13.026560010212652 51 55 58
-7.543892575119274 -0.8762232462695584 13.127577388184505 203 218 237
-6.374172673288406 -6.037774115290746 12.836419909797334 137 142 148
-3.070114406904275 -1.1056137169702132 14.75128428777259 37 36 65
-0.8340926362975636 -1.187864016624907 15.541024606525205 171 194 224
-0.3093296109940886 -1.2610808575672459 15.690838950878764 36 35 38
-7.720582207178454 -0.8000020222409563 13.09254131586739 62 60 66
-7.9838158270549116 -0.8654867826076968 12.950543359604847 48 58 76
-7.648709555256615 -0.8832064982943407 13.087239007571961 229 236 248
-6.339474565469127 -1.4349296746255598 13.473716953689912 0 11 56
-6.504116552429541 -1.423801236721268 13.409364263418873 4 28 72
-4.9803913811094365 -1.5227903047180678 13.968801737727386 1 10 41
-7.028617395064743 -1.7931150941685745 13.180458627523937 6 19 49
-3.787706798231201 -1.6514891441076487 14.395181855826452 214 222 242
-2.9681534043077464 -1.6856944052505052 14.702310115028112 212 234 252
-2.4667419469361227 -1.6924739816810181 14.888688404897138 0 17 42
-3.129140988319721 -1.6728877505318354 14.644390050841814 228 246 254
-2.6926661026076895 -1.6764357712413371 14.806087684682332 1 21 63
0.3678443064633521 -1.7337748450220505 15.897226908478313 128 145 169
-3.6624622541115848 -1.6387349785921346 14.452923433879308 205 224 249
-3.028535457077863 -1.6539531043151787 14.68670326964752 1 14 42
-4.572299107399954 -1.609050686010235 14.114243373262193 235 246 254
-6.368091226008425 -2.284111671217288 13.340610541089127 61 111 160
0.6121015542520725 1.4691926856707287 16.481974240669317 71 68 63
-0.866641725503499 -0.18438351856607313 15.685926028257853 38 19 8
0.6641106544974151 -2.498178016978415 15.927166036176725 19 22 40
-1.1852842097481116 1.2660327737892658 15.723829129190143 170 167 162
1.2502956543418031 1.4271261001516002 16.66641362665006 53 50 45
0.07560694273490287 -2.4651470027724414 15.686503407279606 64 72 93
-6.466741929586596 -2.2421990398673484 13.315275071704747 139 194 251
-7.397292268857309 1.8382837295156722 13.512622725166192 152 149 144
-2.7081416589312974 -2.379302661418694 14.732807919728598 81 127 117
-6.523895198904898 -2.2414279682591314 13.30648783105347 133 188 245
-5.47923336218436 -0.809513181875232 13.880523692317782 56 51 58
-1.189525218678825 -1.1286582770787386 15.437756539254982 137 157 190
-0.22610131960474789 -1.1931280662531276 15.752058511941176 98 113 133
-7.127360308435376 -2.0123465580311075 13.082615889273447 58 36 41
-1.5394960343735902 -1.248890507591677 15.282785333520538 175 195 220
-0.5516118652092372 -1.315077326408181 15.62029559246977 1 10 43
-7.107882095527873 -1.3836355986134738 13.194833316068674 14 39 74
-7.3040255697866305 -1.398141787910046 13.12654926791475 202 224 254
-7.382526142575142 -1.3935902318744327 13.087091440728303 210 228 250
0.12394229561541037 1.3266357762702976 16.23238843947463 119 116 111
-0.7625760842757264 -0.11519208290981209 15.703448485211219 170 145 123
-0.3887578964223133 -0.20759577649443392 15.786982581127852 172 152 123
-4.631679209271624 -1.8649909768603088 14.054387240650199 93 104 134
-7.242150767545677 -1.7751513344291794 13.10380094877372 37 46 75
-6.345232574586894 -1.8639826775852721 13.434131712670828 62 101 166
-6.632894276733933 -1.951329228189546 13.283691832462328 35 80 144
-6.497619564494713 -1.9879165118961801 13.31112036702217 148 173 229
-6.403491978416584 -1.9993199160988897 13.35551038069132 134 171 223
-0.3666960193901785 -2.1895421168658906 15.55397057138832 175 194 214
-0.24278063046168774 -2.1975456136068985 15.600668939871937 140 171 204
-0.4601407520157652 -2.202214202447559 15.527772648732427 16 27 57
-4.5037430879363285 -2.0966487485671115 14.062640831792214 130 126 159
-3.3925182130401494 -2.1400205870995253 14.492898716693242 92 98 124
0.10708690173312996 -2.250908738297381 15.714759599532997 141 170 202
-6.527021367346001 -1.4504111732218417 13.404278575986664 188 212 244
-5.741336221689747 -1.498665545139463 13.683572740975459 193 221 253
-1.0211847173904531 -1.6239557349825946 15.374511394371492 10 28 54
-5.793544914494794 -1.5082852261233652 13.663276999250662 194 215 250
0.28629681193721246 -1.6614237025811365 15.837335393007415 22 30 47
-4.360002755192945 -1.5644001161515435 14.196525280696717 17 22 51
-5.383082294783844 -1.5354996447962195 13.814647037843637 201 220 249
-0.9161324633106217 -1.6529953403351385 15.45256834462519 106 126 153
-5.088278731298817 -1.5557401496359196 13.924226742256243 180 207 235
-4.65576137479327 -1.571326256439388 14.081174297898711 186 202 230
-4.604477383555851 -1.5789054562112474 14.098588734312756 21 35 63
-4.385547895876372 -1.5914195233116921 14.185551818281079 204 230 254
-3.0908120091440026 -1.645589257039775 14.667263895573782 31 43 61
-2.6236127724139404 -1.709439014172793 14.821738391244219 178 196 221
-2.759502418806086 -1.7118989788779932 14.77472644610524 196 214 238
-2.395544880534657 -1.724446657121961 14.90029429163181 209 217 234
-2.534711968040799 -1.7309615659785935 14.8528551857242 195 222 243
-4.087123526738759 -1.6081412770999048 14.294553505111608 221 240 248
-6.688922171762945 -5.407801639253038 12.7722514273611 182 206 234
-6.844406236644045 -5.395513480554039 12.726235960978771 207 214 226
0.5628519973869281 -6.0608593951191985 15.337957051319295 90 95 101
0.192924864571685 -6.094350294509371 15.201353940740649 139 141 166
-0.19763796713879622 -6.455707202617947 15.007925294560904 135 156 188
-4.196025323857543 -6.4527956162826205 13.534708857463002 190 198 215
-1.705509394793983 -6.699298022158415 14.422614891009653 166 173 200
-1.6213917934532807 -6.709259371926761 14.450848292446599 156 174 194
-5.0555699286906846 -6.400258933573243 13.23673955675654 189 200 218
-6.213150411849116 -5.090766658702277 12.99341372966129 47 94 140
-6.302996950532104 -5.093146175362341 12.96531754468552 93 144 197
-5.495813328412839 -5.154392234216039 13.235861584631245 101 140 173
-0.8461295596166948 -5.48926840079713 14.882086904799438 146 175 207
-3.576224446240695 -5.345260646465993 13.86479842757071 148 181 216
-6.206304803962159 -5.170101923785942 12.98456695059584 68 115 159
-6.116774101496451 -5.184974296783566 13.012751006230355 92 134 176
-4.901099223551628 -5.283863219052088 13.451165156386075 84 126 166
-5.669241843275216 -5.331481511939521 13.164825487640135 98 133 166
-6.304276527663591 -5.289811755137202 12.934623915153953 100 139 172
-6.60921225749863 -5.284665969480985 12.837925106973897 175 207 244
-0.5685583391809905 -5.776639178433601 14.96867717755996 121 148 169
-5.80578831400448 -5.4219244133411 13.096302417781477 97 111 65
-6.607726009356406 -5.366933784379657 12.810993596156202 138 163 193
-3.31385233237146 1.3742604229012232 14.992480386422425 58 55 50
-6.363713020903482 -1.460090243981063 13.463078277466671 218 232 252
-4.694270705275458 -1.8606061322649603 14.0427942047045 102 109 137
-6.453206938063719 -1.961045243091802 13.359011151185987 57 97 149
-2.0805469336729456 -6.684667803393579 14.291123622347426 158 171 190
-2.5937129958365936 -2.246977521768109 14.76040184048018 51 29 42
-6.2527824182372385 -3.4736433090135344 13.207361930862914 188 223 252
-6.7996142021658965 -4.997404353998564 12.78835663686398 81 118 162
-5.44841510694922 -5.518028661520741 13.242536805957071 49 58 82
-4.233826412122286 -6.547463084132227 13.536523179929913 192 217 248
-2.5121828118124743 -6.660776451079067 14.14660477669211 168 181 200
-2.943071389709324 -6.631004170993493 13.990654689551743 178 192 211
-3.7989634845046227 -6.565702778825984 13.669001548205648 165 179 198
-5.085377412767664 -6.4827209219692055 13.216467504124035 189 198 215
-4.176611502931353 -7.516378220298326 13.405201800566799 87 76 44
-2.953311698778421 -2.3522742752311063 14.571422723188032 53 138 122
-2.8910286071655302 -2.356985408390994 14.596752930187673 57 135 123
-6.6276403139186755 -2.259732156489569 13.243092482118762 24 103 162
-6.559485490993417 -2.27326536314634 13.274224265191041 75 136 194
-2.2796048362822363 -2.493666178732313 14.75829659344856 131 173 221
-6.622985981554945 -3.3529092429551555 13.08605827674484 194 224 252
-1.668359391589771 -2.5688091962788824 15.029361817375054 56 102 152
-1.5162080043861468 -2.5771866153420104 15.092592483562013 47 93 143
-1.4115771647587556 -2.5895137594251008 15.133468343787099 62 102 154
-6.365054166332953 -2.948879545123353 13.247349510339967 98 140 180
-6.6201809833377565 -3.246250357708517 13.09824228515089 193 223 251
-6.690149791257582 -3.3117772773480403 13.126838589121386 200 230 254
-6.662494782584011 -2.3749873930159184 13.217218503912976 45 106 163
-7.216989782562272 -2.0145868817755392 13.090175450951627 56 33 39
1.0664752571315643 -2.2720626333433627 16.051807090090275 157 164 180
-6.822183484397006 -2.0449853277217045 13.192698381127876 41 40 58
0.05103581408899194 -2.2634185805326403 15.692423251147375 0 19 59
-2.9058438178279156 -2.2025669554432787 14.646089531540326 92 116 160
-3.840572070292769 -2.169791121823471 14.32867399090735 82 34 45
0.006738625195600534 -2.285486186030407 15.672503633202211 151 167 200
0.7364299985057852 -2.3088874001649096 15.926402320343371 35 44 61
-0.3675939326100812 -2.2795607147626464 15.540361324601035 161 193 222
-0.24753743106643422 -2.290064427659345 15.59803056797401 168 182 217
-2.658734650082881 -2.34174292675862 14.72098019865077 24 86 62
0.4548615289042839 -2.3282351274474338 15.84747420219518 19 36 66
-2.8278623122334734 -2.2183603066634707 14.621602139719355 61 34 42
0.05038477127346086 -2.317522226015527 15.686424311477612 155 177 200
1.0646489430117818 -2.3911498012488863 16.028730370572642 127 136 153
-1.5402701715658205 -2.332918713502266 15.162079459213903 37 42 68
-2.397197422804408 -2.3292738931016883 14.844980414338306 108 60 85
-0.980918317663309 -2.380983774946286 15.248450954279983 134 174 226
1.042690451231637 -2.3402513480162495 16.079760560877375 27 26 34
-6.177115714948688 -4.746354532855505 13.03386826346258 104 143 176
-6.357559609750834 -4.750186174705128 12.987996848994818 144 178 204
-6.071622669322765 -4.766864192795965 13.103300351193562 193 232 255
-6.191867326200748 -4.793347214584167 13.047108575996637 181 220 253
-4.833232073174773 -4.990093883402632 13.537919816268985 178 211 244
-4.542815900910296 -5.054536580695267 13.67436049256622 122 154 193
-4.796630199766526 -5.007272866549467 13.51335607595442 104 136 175
-5.603655862902415 -4.956369984513614 13.239140519969572 97 128 174
-1.2339298541582087 -5.065784934786734 14.877913956170648 51 57 83
-1.1841590783806817 -5.300247777068221 14.815544797653843 99 122 163
-5.831821091614456 -4.948946634846291 13.163009138381762 114 145 191
-6.085351482452308 -5.010889169298485 13.065889462220344 113 154 200
-6.356134671957739 -5.0663140771580855 12.973842843751209 162 208 255
-6.4951500292089275 -5.046445215365417 12.903853432318556 168 210 252
-6.388076847392552 -3.3973976181266394 13.167366335568826 192 231 255
-6.622388441580726 -3.4634626923838425 13.065049548034372 199 229 255
-6.6298310898975235 -3.7798958542627332 13.022176997722124 199 229 255
-6.634911669481841 -3.8807936429715193 13.016898537109324 196 226 253
-6.634851783130242 -3.9842008356896086 12.994455252984535 195 224 255
-6.529706365925939 -4.088748900663603 13.000903552644969 120 155 193
-6.483322518930222 -4.310052268182375 12.996861387663657 94 131 177
-6.450166447489486 -4.3439233176955785 13.008396340417521 191 225 253
-6.049351544380074 -4.385704903406039 13.137399079992672 93 132 168
